-9.457  12.214   1.927
 6.093   6.305   1.315
-5.797   3.338  -0.437
-1.920  18.664  -1.892
-6.235  17.230  -6.187
-0.450   7.536   5.868
-9.387  12.795   2.250
 5.993   6.019   0.715
-5.446   3.341   1.921
-1.589  18.577  -2.475
-6.604  17.741  -6.024
-1.050   8.084   5.796
-9.354  12.480   1.326
 5.982   6.597   1.935
-6.369   3.342   0.166
-2.202  18.425  -1.271
-6.543  16.620  -5.945
-0.149   8.359   5.750
-9.319  11.944   2.530
 5.981   5.740   1.617
-5.131   3.345  -0.720
-1.149  18.255  -2.829
-6.597  16.017  -5.685
-1.649   8.357   5.729
-9.312  11.951   3.679
 5.957   6.900   1.025
-5.449   3.347   0.754
-2.812  18.127  -1.000
-7.129  18.069  -5.642
-0.749   8.911   5.709
-9.288  11.669   1.331
 5.854   5.417   0.992
-5.145   3.350   0.137
-2.309  18.098  -1.966
-6.797  17.180  -5.636
 0.450   8.633   5.694
-9.266  13.098   1.623
 5.840   6.007   2.282
-4.510   3.351   0.418
-7.425  17.954  -4.934
-6.168  17.096  -5.509
-0.149   6.965   5.686
-9.241  12.488   3.126
 5.824   6.604   0.396
-3.103   3.352  -2.809
-2.820  17.827  -1.617
-6.684  17.772  -5.188
 0.150   6.271   5.668
-9.179  12.474   4.226
 5.737   7.181   1.622
-3.980   3.353  -2.487
-1.856  17.812  -2.407
-6.234  16.387  -5.158
-1.029   7.256   5.659
-9.177  14.266   1.916
 5.703   5.157   1.918
-1.885   3.354  -2.498
-3.068  17.784  -0.499
-6.644  15.519  -5.153
 0.450   7.519   5.647
-9.161  11.419   1.958
 5.680   5.989   0.116
-4.564   3.356  -1.306
-3.326  17.703  -1.198
-6.918  16.309  -5.147
-0.750   6.265   5.612
-9.149  12.748   0.776
 5.536   5.119   0.353
-6.674   3.365  -0.449
-7.506  17.559  -4.274
-7.154  17.166  -5.083
-1.715   9.065   5.572
-9.120  13.241   2.722
 5.513   6.641   2.588
-3.679   3.365   0.465
-2.564  17.531  -1.087
-6.401  17.160  -4.835
-1.669   7.499   5.564
-9.119  14.748   2.412
 5.510   5.450   2.539
-6.008   3.369   1.336
-1.253  17.521  -2.122
-7.047  15.769  -4.658
 0.750   6.955   5.555
-9.092  11.930   0.631
 5.476   4.826   0.995
-2.814   3.374  -2.229
-3.674  17.519  -0.433
-7.157  16.591  -4.598
-0.129   9.334   5.549
-9.084  13.050   3.443
 5.433   7.196   0.689
-4.315   3.380  -0.680
-0.996  17.519  -2.855
-6.700  15.219  -4.579
-2.260   8.029   5.526
-9.069  11.560   3.053
 5.294   6.088   2.902
-4.383   3.383   2.638
-1.907  17.495  -1.633
-6.285  16.071  -4.559
 1.035   7.794   5.509
-9.057  14.813   1.315
 5.289   5.607  -0.272
-1.004   3.383  -2.211
-6.900  17.495  -4.540
-0.149   5.419   5.470
-9.045  13.434   1.021
 5.179   7.362   1.340
-6.248   3.383  -0.939
-7.469  17.284  -3.693
-6.376  16.828  -4.245
 1.048   8.976   5.420
-9.025  13.718   2.219
 5.171   6.733   0.053
-3.387   3.384   1.333
-3.947  17.209  -1.011
-7.769  16.944  -4.196
-2.524   3.989   5.413
-9.024  11.582   4.308
 5.158   4.541   1.620
-5.200   3.385   2.536
-4.242  17.201  -0.409
-7.161  14.990  -4.194
-0.749   9.590   5.412
-8.975  13.723   3.419
 5.154   4.899   2.459
-6.643   3.387   1.011
-2.518  17.194  -1.951
-7.281  16.312  -3.996
-1.320   6.649   5.406
-8.973  13.996   2.818
 5.135   7.146   2.223
-0.132   3.391  -2.188
-3.116  17.191  -1.634
-6.294  15.757  -3.960
 0.772   6.000   5.403
-8.971   9.227   1.643
 5.099   4.615   0.424
-3.971   3.397  -1.595
-3.014  17.160  -0.686
-1.581   8.345  -3.925
-7.249  12.250   5.353
-8.954  11.298   3.670
 4.966   5.019  -0.270
 0.425   3.401   1.356
-7.212  17.106  -3.112
-1.877   7.498  -3.898
-1.177   5.826   5.334
-8.950   9.902   1.639
 4.872   4.311   1.022
-3.379   3.404   2.205
-1.867  16.973  -2.083
-2.281   8.405  -3.816
-2.395   8.726   5.329
-8.928   8.952   1.046
 4.853   5.458   3.086
 0.757   3.411   0.125
-0.877  16.964  -2.374
-1.573   6.860  -3.812
-7.750  12.815   5.326
-8.879   9.563   2.212
 4.849   6.582   2.801
-6.036   3.416   2.527
-3.548  16.925  -0.037
-1.177   7.776  -3.812
 1.314   6.655   5.323
-8.877  13.348   4.209
 4.809   7.134   0.496
 0.739   3.418  -1.934
-6.617  16.908  -3.408
-0.780   8.338  -3.791
 0.450   5.195   5.319
-8.871   9.575   0.771
 4.714   4.376   2.163
-3.685   3.422   2.839
-1.915  16.904  -1.384
-2.498   7.779  -3.751
-1.857   4.252   5.271
-8.859  10.165   1.039
 4.660   7.559   1.005
-5.716   3.430   3.108
-7.191  16.882  -2.482
-0.477   7.772  -3.732
 1.388   8.402   5.266
-8.854  12.466   0.178
 4.624   8.134   0.718
 1.304   3.433  -1.304
-1.127  16.839  -1.734
-1.314   8.968  -3.730
 1.647   7.449   5.256
-8.833  12.232   4.712
 4.623   7.839   1.614
 1.587   3.434  -0.149
-4.582  16.833   0.110
-6.713  14.995  -3.711
 0.473   9.613   5.249
-8.804  14.589   3.199
 4.596   6.016  -0.430
-7.163   3.439   0.142
-4.394  16.690  -0.881
-7.243  15.472  -3.690
-1.999   6.878   5.227
-8.798  11.245   0.731
 4.593   8.412   1.316
-6.034   3.440   3.711
-2.481  16.680  -0.973
-0.774   7.204  -3.684
-1.364   9.646   5.223
-8.792   8.886   2.292
 4.573   8.971   0.717
 0.726   3.442   1.943
-6.572  16.676  -2.781
-6.240  16.391  -3.659
 1.055   5.416   5.207
-8.785   8.939   0.397
 4.570   4.646   2.766
 2.216   3.443   0.481
-7.851  16.628  -3.073
-2.409   6.934  -3.625
-7.535  11.658   5.196
-8.767   8.610   1.646
 4.549   6.042   3.100
-3.669   3.445   3.687
-7.215  16.602  -1.887
-0.193   8.662  -3.616
-0.749   5.109   5.165
-8.759  14.260   1.016
 4.541   6.554  -0.047
-3.118   3.446   4.040
-4.001  16.599   0.339
-1.071   6.353  -3.612
-3.082   3.665   5.149
-8.757  13.496   0.324
 4.531   7.845   0.120
-4.832   3.447   3.106
-2.812  16.598  -1.674
-1.906   9.198  -3.568
-7.464  13.362   5.138
-8.747  14.023   4.004
 4.529   8.101   2.221
 0.158   3.447   0.732
-3.715  16.593  -1.368
-1.804   6.087  -3.559
-6.651  11.934   5.127
-8.742  15.268   1.937
 4.527   8.687   1.916
-5.445   3.449   4.003
-1.647  16.447  -1.771
 0.103   7.493  -3.551
-2.249   4.747   5.102
-8.724  10.434   1.935
 4.516   9.249   1.316
 1.329   3.453   2.201
-5.166  16.404   0.138
-0.421   6.347  -3.515
-6.922  12.775   5.090
-8.711  11.264   2.494
 4.507   8.685   0.118
-4.565   3.459   4.009
-1.906  16.398  -0.931
-0.738   9.316  -3.480
-8.379  12.784   5.089
-8.706  10.975   1.334
 4.477   4.333   0.142
 0.745   3.460   3.945
-6.504  16.390  -2.205
-2.904   8.395  -3.461
-2.396   7.532   5.084
-8.678  11.656   0.146
 4.440   7.212   2.403
-3.415   3.463  -1.917
-3.328  16.384  -0.352
-2.518   9.023  -3.460
 1.335   6.034   5.082
-8.659   8.396   0.748
 4.437   4.108   1.616
-0.727   3.464   4.534
-7.724  16.371  -2.213
 0.420   8.385  -3.404
-1.928   3.498   5.078
-8.652   9.608   0.143
 4.426   9.453   0.218
 0.160   3.465   4.296
-4.924  16.332  -0.512
 0.723   7.752  -3.402
 1.555   9.218   5.074
-8.609   9.310   2.743
 4.393   9.265   2.282
 2.766   3.467   1.315
-6.921  16.289  -1.344
-1.067   5.487  -3.376
-0.149   4.890   5.072
-8.600  10.421   0.438
 4.377   9.875   1.016
 1.333   3.470   3.651
-4.550  16.226   0.621
-7.382  16.069  -3.368
-1.831   6.045   5.061
-8.597  15.053   0.788
 4.375   8.673   2.566
 2.246   3.476   1.930
-6.188  16.156  -3.059
-6.272  15.426  -3.352
 2.149   8.086   5.050
-8.594  15.134   2.743
 4.362   7.241  -0.164
-1.597   3.479   4.381
-7.525  16.103  -1.223
 0.426   6.899  -3.324
-2.947   4.460   5.039
-8.570   7.922   1.350
 4.322   8.390  -0.479
-2.502   3.481   4.580
-2.748  16.068  -0.126
 0.131   6.050  -3.323
-1.118   3.725   5.017
-8.551  10.119   2.662
 4.309   9.800   1.916
-6.565   3.482   3.058
-3.699  16.037   0.114
 0.157   9.255  -3.309
-2.103   9.461   5.016
-8.521   8.059   2.047
 4.263   4.790  -0.514
 1.625   3.484   2.794
-2.508  16.018  -1.332
-3.046   7.555  -3.306
-8.110  12.168   4.960
-8.507   8.922  -0.255
 4.254   7.820   2.836
-6.012   3.515   4.438
-3.408  16.000  -1.315
-2.450   6.361  -3.296
-0.418   9.960   4.959
-8.465  13.146  -0.166
 4.250   5.208   3.256
 2.975   3.529   0.556
-4.062  15.992  -1.124
-1.843   5.510  -3.279
-1.713   5.348   4.957
-8.448  14.601   3.762
 4.242   9.227  -0.480
-3.501   3.535   4.625
-6.421  15.981  -1.647
-0.266   5.548  -3.241
-1.328   4.555   4.953
-8.437  10.138  -0.159
 4.239  10.147   0.417
-3.953   3.575   1.016
-5.471  15.971   0.678
 1.075   7.174  -3.209
 2.001   6.909   4.941
-8.428   7.838   0.451
 4.194   3.963   0.717
 1.348   3.585   4.362
-6.942  15.964  -0.754
 0.773   9.062  -3.205
 0.748   4.738   4.933
-8.427  14.266   0.397
 4.150   7.181   3.006
-4.859   3.590   0.925
-2.214  15.785  -0.499
 0.730   6.320  -3.174
-0.741   4.264   4.880
-8.421  13.754   4.607
 4.129  10.425   1.266
 1.426   3.598  -2.033
-7.410  15.769  -2.772
 1.021   8.439  -3.156
-8.145  13.679   4.876
-8.404  12.167  -0.352
 4.116   8.401   3.143
 0.082   3.599   1.954
-5.713  15.769   0.111
-1.332   9.645  -3.121
-6.927  11.336   4.862
-8.401   8.373   2.790
 4.103   9.994  -0.278
 0.169   3.602  -1.523
-6.157  15.764  -2.458
-7.443  14.989  -3.094
 1.049   9.835   4.857
-8.386  11.070   3.401
 4.096   6.523  -0.544
-1.629   3.610  -1.808
-7.778  15.761  -1.891
-6.600  14.877  -3.085
-2.734   8.101   4.856
-8.386  11.307   4.586
 4.081   9.397   2.928
 3.435   3.618   1.375
-7.202  15.713  -0.169
-1.364   4.891  -3.074
 1.902   5.709   4.848
-8.369  15.392   1.324
 4.072   7.245  -0.876
 0.978   3.621   2.838
-4.844  15.690   0.928
-2.909   6.911  -3.073
-7.500  13.934   4.846
-8.334  11.020   0.160
 4.070   8.649  -1.077
-6.282   3.629   1.894
-4.560  15.689  -0.824
 1.339   7.758  -3.070
 2.246   8.968   4.830
-8.300   8.129  -0.126
 4.065   9.950   2.583
 1.884   3.630  -1.067
-5.111  15.684  -0.478
-0.464   4.892  -3.051
 2.436   7.493   4.789
-8.235   9.666   3.206
 4.026  10.492   1.916
 2.185   3.639   3.132
-6.443  15.674  -1.076
 0.733   5.465  -3.050
-2.683   8.978   4.761
-8.209   8.919   3.205
 3.975   4.025   2.225
-5.121   3.642   4.623
-4.066  15.655   0.601
-2.415   5.706  -3.043
 1.477   5.196   4.751
-8.170   7.483   1.653
 3.960   4.599   3.088
-4.611   3.652  -1.933
-6.896  15.633   1.885
 1.328   6.595  -3.036
-6.434  12.488   4.743
-8.162   7.760   2.540
 3.953   5.760   3.110
-0.190   3.665   1.337
-7.650  15.624  -0.790
-2.960   8.901  -3.009
 1.848   9.760   4.708
-8.160  10.741   2.890
 3.948   5.723  -0.536
 2.445   3.669  -0.085
-7.195  15.617   1.294
-3.069   3.971  -3.008
-0.079   3.979   4.691
-8.150  11.524  -0.262
 3.935   7.802   3.405
-3.663   3.670  -2.995
-6.320  15.606   2.186
 2.630   8.425   4.690
-8.147   9.302  -0.807
 3.923  10.762   0.436
-0.736   3.670  -1.625
-5.973  15.604   0.933
 0.334   4.963  -2.979
-6.802  13.404   4.646
-8.134  14.814   0.097
 3.919   6.656   3.374
 1.932   3.674   4.010
-7.457  15.599   2.198
-3.259   8.141  -2.953
 2.276   6.340   4.639
-8.130  13.968  -0.179
 3.908   4.077  -0.061
 0.159   3.690   0.122
-5.959  15.576   1.614
-0.714   9.763  -2.942
-3.458   4.309   4.637
-8.110  15.466   2.219
 3.850   9.488  -0.932
-3.101   3.693   2.848
-6.925  15.573   2.628
 1.725   7.225  -2.940
-2.345   6.804   4.634
-8.105  14.340   4.344
 3.811   6.591  -1.175
-2.756   3.695   1.681
-2.819  15.544  -0.748
 1.384   5.738  -2.910
-5.449   4.271   4.578
-8.104  15.112   3.335
 3.771   7.995  -1.375
-7.219   3.696   0.769
-6.899  15.536   0.430
 1.630   8.688  -2.890
 0.454  10.096   4.577
-8.096   7.250   0.754
 3.766  11.033   1.594
 0.763   3.708  -0.752
-3.231  15.514   0.048
-2.461   4.296  -2.884
-2.782   4.940   4.569
-8.091  12.731  -0.540
 3.757  10.198  -0.797
 3.109   3.713   2.184
-3.685  15.503  -0.941
 0.477   9.639  -2.857
 1.349  10.378   4.558
-8.088  10.985   3.982
 3.753  10.768   2.552
 3.145   3.788  -0.006
-7.808  15.462   0.751
-2.191   9.553  -2.852
-7.525  11.096   4.556
-8.054  10.685  -0.426
 3.734   8.951   3.654
-2.751   3.794   0.991
-6.027  15.457   2.801
-2.165   4.866  -2.843
-5.149   8.693   4.552
-8.032   7.534  -0.148
 3.715  10.754  -0.182
-2.205   3.810   1.340
-6.560  15.453  -0.441
 1.317   9.280  -2.800
 2.505   9.542   4.552
-8.026   8.341  -0.756
 3.711  10.137   3.099
-2.235   3.811   2.236
-7.790  15.425   2.800
-2.873   6.275  -2.794
-2.158   5.742   4.551
-8.004   8.144   3.305
 3.688   7.201   3.661
-2.995   3.815   0.379
-5.511  15.377   2.202
-3.652   4.283  -2.785
 0.726   3.947   4.547
-7.916   9.905  -0.863
 3.679   8.658  -1.606
-3.724   3.815  -0.680
-7.747  15.368   0.110
 1.924   7.848  -2.769
-1.641   9.881   4.543
-7.862  13.344  -0.534
 3.665   4.495  -0.509
-1.479   3.821   1.949
-7.177  15.351   3.283
 1.930   6.293  -2.762
-6.416  11.663   4.541
-7.852   7.187   2.198
 3.636   5.126  -0.665
-2.093   3.821   0.465
-6.269  15.246   3.455
-1.661   4.001  -2.761
-5.749   9.255   4.529
-7.833  10.166   3.425
 3.607   6.019   3.623
-1.649   3.826   1.004
-6.094  15.240   0.030
 1.036   4.870  -2.751
-6.349   8.971   4.510
-7.793   8.669   3.714
 3.604  11.266   0.751
-2.496   3.830  -0.170
-7.542  15.205  -1.589
 1.934   5.442  -2.739
-6.995  14.265   4.499
-7.787  12.150  -0.661
 3.551   7.131  -1.481
-2.621   3.831  -1.773
-5.155  15.160   1.328
-3.305   7.463  -2.683
-3.049   9.535   4.487
-7.785   6.898   1.334
 3.544   8.083   3.899
-1.042   3.834   1.347
-6.226  15.142  -1.657
-0.060   4.486  -2.638
 1.315   4.248   4.472
-7.773  14.832   3.992
 3.514   9.311  -1.453
-2.780   3.839  -0.771
-4.523  15.140   0.813
 2.326   7.203  -2.631
-4.899   9.532   4.457
-7.759   7.572   3.046
 3.486   5.655  -1.068
-0.781   3.839   1.954
-6.259  15.130  -2.467
-1.060   4.274  -2.618
-2.462   9.809   4.455
-7.741  14.795  -0.487
 3.474  11.369   2.183
-2.504   3.844   3.087
-4.826  15.107  -0.459
-3.105   4.674  -2.601
-5.681   8.148   4.445
-7.719   9.001  -1.256
 3.471   9.640   3.748
-1.328   3.844   0.436
-3.681  15.069  -0.173
 2.217   8.420  -2.601
-4.572   3.989   4.439
-7.706   7.539  -0.714
 3.459   5.163   3.224
-1.622   3.846  -0.146
-6.899  15.031   3.840
-0.459   3.986  -2.562
 2.943   7.819   4.437
-7.669   7.027   0.252
 3.409  10.782  -0.787
-3.392   3.846  -1.271
-4.090  14.946   0.342
-2.834   9.346  -2.543
 2.108   5.211   4.436
-7.565  11.328  -0.568
 3.397   6.667   3.939
-1.908   3.848   2.811
-7.464  14.925  -2.186
-2.738   5.418  -2.539
-0.190  10.469   4.415
-7.534   8.007  -1.127
 3.387   4.083   2.708
-0.463   3.851   0.750
-5.651  14.889   3.061
-6.923  14.652  -2.527
-6.349   8.332   4.410
-7.514  10.746   3.696
 3.386  10.752   3.097
-1.935   3.858  -0.730
-6.246  14.850  -0.737
-1.330   9.888  -2.517
-1.049  10.163   4.402
-7.498   6.647   0.752
 3.367  11.325  -0.158
-1.019   3.864   2.798
-5.403  14.793  -0.198
-4.200   3.980  -2.510
-4.829   8.105   4.396
-7.496   9.214   3.965
 3.352   6.070  -1.556
-0.719   3.867   0.136
-6.285  14.631   3.788
-3.385   8.691  -2.497
-3.715   9.222   4.387
-7.493  12.744  -0.817
 3.332  11.639   1.305
-0.146   3.873   2.491
-7.385  14.579  -1.235
 1.618   4.862  -2.473
 2.896   8.956   4.378
-7.487  10.424  -1.054
 3.308   7.743  -1.828
-1.014   3.879  -0.490
-4.923  14.567   0.976
 2.534   7.843  -2.465
-0.748  10.797   4.371
-7.478  13.928  -0.650
 3.229  11.717   0.450
-1.630   3.892   3.404
-5.321  14.561   2.259
 1.946   9.243  -2.443
-4.448   8.679   4.370
-7.447   7.854   3.634
 3.195  11.381   2.838
-0.436   3.895   3.088
-6.359  14.542  -1.305
-0.124   9.966  -2.433
-3.651   8.399   4.364
-7.436   6.985   2.741
 3.175   6.605  -1.872
-2.440   3.904   3.836
-6.633  14.530  -1.885
 1.039   4.265  -2.431
 2.272  10.176   4.356
-7.427   6.685   1.904
 3.148  10.173  -1.440
-0.479   3.905  -1.041
-4.825  14.470   0.135
 2.478   6.035  -2.431
 2.546   5.696   4.336
-7.406   9.861   3.879
 3.130   5.411   3.770
-0.135   3.907  -0.460
-5.947  14.409  -0.268
 0.440   3.975  -2.412
-6.076   4.278   4.327
-7.251   9.889  -1.411
 3.130   8.668  -1.973
-5.751   3.914  -0.947
-5.075  14.241   1.638
 0.931   9.765  -2.407
 2.801   7.177   4.312
-7.226   6.849  -0.201
 3.085   5.198  -1.295
 2.779   3.917   2.842
-6.542  14.151  -0.817
-2.212  10.079  -2.401
-1.949  10.440   4.298
-7.199   7.210   3.363
 3.074   4.520   3.148
-6.491   3.923   3.902
-6.114  14.054   3.561
-3.434   9.578  -2.338
-3.950   7.833   4.297
-7.197   8.399   4.044
 3.074  10.400   3.634
-1.015   3.926   3.643
-6.516  14.037   4.096
-2.852  10.107  -2.332
-6.049   9.804   4.297
-7.195  13.331  -0.799
 3.067  11.889   1.898
 0.460   3.927   3.063
-5.394  14.025   2.810
-3.982   9.215  -2.329
-5.149   7.551   4.278
-7.194   6.366   1.333
 2.960   9.820   4.120
-6.637   3.983   1.320
-5.429  13.969  -0.169
-1.017  10.453  -2.323
-3.049  10.156   4.268
-7.190  11.004  -0.987
 2.868   9.305  -1.983
-3.882   3.984   4.256
-4.924  13.937   0.740
 2.534   8.970  -2.296
-2.831   7.523   4.262
-7.187  11.868  -0.820
 2.860   7.203  -2.251
-4.883   4.010  -1.158
-5.041  13.691   2.248
 2.305   5.096  -2.293
 1.907   4.569   4.262
-7.180   8.719  -1.617
 2.858  11.108   3.447
-6.900   4.011  -0.110
-5.990  13.646  -0.644
 1.612   9.813  -2.290
 0.148  11.072   4.248
-7.164   7.329  -1.030
 2.854   5.446  -1.878
-6.445   4.043   2.717
-4.798  13.634   1.351
-3.199   6.835  -2.270
-6.649   9.517   4.245
-6.989   6.214   0.725
 2.843  11.956   2.516
 2.472   4.056   3.629
-4.977  13.549   0.192
 1.672   4.218  -2.254
-6.389  13.028   4.239
-6.939   6.256   1.951
 2.821  11.682  -0.487
-5.810   4.111   1.920
-5.547  13.532   3.295
-3.656   4.668  -2.240
-4.249   7.265   4.236
-6.924  10.449   3.863
 2.820   4.254  -0.528
-6.338   4.136  -0.636
-5.080  13.387   2.867
-5.481   8.912  -2.209
-2.419   6.287   4.229
-6.907   7.827   3.981
 2.812  11.095  -1.109
 2.182   4.218  -1.350
-5.419  13.358  -0.421
-4.580   8.916  -2.203
-5.449  10.154   4.227
-6.903   4.271   0.739
 2.796   4.856   3.717
-4.668  13.268   0.771
-4.884   9.851  -2.200
-4.249   9.799   4.222
-6.896   8.140  -1.712
 2.793  12.179   1.321
-4.323   4.293  -1.931
 0.439  13.171   1.359
-2.212  10.745  -2.197
-6.067  12.194   4.209
-6.889  10.447  -1.387
 2.780   4.660  -1.070
-6.457   4.327   3.370
 0.134  13.139   0.760
-0.169  10.714  -2.182
-6.018   7.528   4.180
-6.882   9.301  -1.646
 2.738  12.145   0.481
-6.085   4.357   1.372
-0.150  13.124   1.629
-3.627   8.066  -2.179
-1.348  11.068   4.179
-6.872  12.471  -0.886
 2.604  11.689   3.130
-5.655   4.481  -0.648
-0.452  13.096   1.031
-0.746  11.034  -2.168
-3.650   6.909   4.170
-6.792   6.742   3.086
 2.576  12.315   1.917
-5.303   4.483   1.769
-4.550  13.091   1.907
-5.485   9.559  -2.167
-4.249   4.515   4.147
-6.762   6.881  -0.772
 2.514  10.683   3.875
-5.696   4.522   2.518
 1.035  13.091   0.992
-3.673  10.160  -2.165
-3.949   6.274   4.139
-6.736  11.095   3.923
 2.511   9.897  -1.977
-6.364   4.577   0.146
-6.572  13.078  -0.871
-5.177   8.337  -2.159
-4.549  10.431   4.138
-6.668   7.359  -1.459
 2.449  12.160  -0.144
-4.282   4.595  -1.341
 0.449  13.068   2.207
 0.435  10.413  -2.154
 0.724  10.747   4.131
-6.640   6.006   1.343
 2.442  10.704  -1.539
-6.016   4.708   3.740
-5.722  13.067   3.744
-4.277   8.336  -2.100
-0.499  11.418   4.105
-6.615   7.184   3.706
 2.328  12.338   2.539
-5.977   4.723   0.760
 1.034  13.056   1.918
-3.094  10.660  -2.089
-2.500  10.780   4.062
-6.610   6.272  -0.175
 2.242  12.572   1.009
-5.153   4.784   3.949
 0.437  13.033   0.126
-4.286  10.423  -2.084
-3.650  10.285   4.055
-6.590  11.588  -1.001
 2.216  11.954  -0.750
-5.648   4.801   3.116
-0.711  13.029   1.944
 0.407  11.088  -2.026
-6.074  10.531   4.054
-6.586   9.883  -1.660
 2.209  11.339  -1.321
-4.836   4.808  -0.929
-1.005  13.016   1.346
-5.802   8.004  -2.013
 1.649  10.847   4.045
-6.581   8.739  -1.855
 2.189  11.308   3.627
-3.667   4.821  -1.594
-0.738  12.999   0.465
-5.489  10.236  -2.000
-2.576   5.224   3.994
-6.357  11.054  -1.432
 1.952  12.587   0.108
-3.634   4.832   3.955
-0.143  12.986   2.440
-1.636  11.051  -1.984
-4.250   5.698   3.985
-6.350   5.974   0.741
 1.924  12.228   3.083
-5.740   4.866  -0.136
 1.221  12.955   0.276
 1.282  10.498  -1.978
-4.536   6.654   3.975
-6.350   6.253   2.497
 1.912  12.747   1.589
-5.361   5.003   1.198
-1.352  12.904   0.729
-3.071   6.013  -1.941
 0.449  11.622   3.961
-6.283   9.320  -1.885
 1.667  11.051  -1.676
-5.044   5.073   1.883
-4.204  12.903   1.029
-2.980   5.161  -1.936
-5.449  10.775   3.945
-6.224  12.139  -0.889
 1.647  12.007  -1.091
-3.962   5.129  -1.096
-0.436  12.891  -0.153
-4.888  10.772  -1.912
-3.336   6.288   3.944
-6.190  10.401  -1.804
 1.619  12.470  -0.439
-4.812   5.366   3.621
-4.832  12.888  -0.158
-4.574   7.753  -1.883
 1.018  11.324   3.915
-6.126   6.538   3.228
 1.617  12.781   2.205
-5.328   5.379  -0.644
-1.599  12.861   1.595
-3.686  11.060  -1.880
-1.930  11.325   3.893
-6.118   6.592  -0.844
 1.600  11.817   3.563
-5.202   5.387   2.763
-1.319  12.842   2.190
 1.009  11.284  -1.858
-5.232   7.028   3.879
-6.089   5.883   1.686
 1.328  12.491   3.093
-3.348   5.397   3.765
-5.044  12.829   3.231
-3.673   7.469  -1.851
-5.536  12.458   3.866
-6.058  11.319   3.648
 1.061  11.980  -1.410
-4.562   5.410  -1.065
 0.736  12.828   2.780
-5.174   7.534  -1.812
-5.832  11.697   3.836
-6.051   7.168  -1.575
 1.000  12.519  -0.717
-3.363   5.413  -1.052
-3.972  12.804   0.157
-0.171  11.501  -1.788
-4.750  10.981   3.832
-6.048   6.001   0.132
 0.949  12.102   3.586
-5.611   5.413   0.718
-3.643  12.785   0.719
-5.589  10.979  -1.777
-0.149  11.969   3.809
-6.005  11.616  -1.271
 0.454  12.186  -1.247
-5.463   5.759   1.987
-1.927  12.778   1.040
-4.341  11.115  -1.761
-1.401  11.690   3.803
-6.000  12.745  -0.766
 0.446  12.431   3.338
-3.916   5.920  -1.157
-0.723  12.775   2.798
-4.271   7.106  -1.756
-3.922  10.805   3.785
-5.550   6.237   2.937
 0.281  12.654  -0.629
-4.930   5.960  -1.120
 0.151  12.756  -0.437
-0.996  11.443  -1.722
-3.050  11.047   3.723
-5.525   6.354  -0.755
-0.117  12.685   3.040
-5.040   6.065   3.312
-4.618  12.739   2.454
-3.084  11.346  -1.710
-4.794   6.079   3.632
-5.502  12.032  -1.111
-0.413  12.566  -0.807
-3.395   6.286  -1.395
-3.950  12.738   1.640
-2.227  11.419  -1.691
-0.799  12.241   3.512
-5.469   6.858  -1.346
-0.439  11.948  -1.364
-4.268   6.517  -1.459
-1.611  12.728   0.169
-1.621  11.616  -1.602
-5.148  11.391   3.482
-5.133  12.496  -0.743
-1.013  12.706  -0.387
-3.649  11.319   3.446
-4.839  11.564  -1.552
-4.249  11.390   3.467
-5.121  12.201   3.416
-1.036  12.224  -1.051
-3.025  11.561   3.325
-4.310  12.689  -0.492
-4.163  11.764  -1.444
-1.970  11.898   3.440
-4.873  12.127  -1.221
-1.330  12.430   3.098
-3.356  11.785  -1.266
-3.212  12.657   1.318
-2.821  11.796  -1.282
-4.757  12.157   2.838
-1.610  12.259  -0.749
-4.549  11.796   3.063
-2.253  12.627   0.426
-2.186  11.997  -1.098
-3.649  11.868   3.085
-3.997  12.318   2.591
-1.916  12.477   2.508
-2.836  11.990   2.867
-2.321  12.623   1.642
-3.918  12.230  -1.077
-2.545  12.060   2.884
-3.680  12.566  -0.443
-2.208  12.390  -0.413
-3.078  12.158  -0.757
-3.342  12.592   0.095
-3.390  12.383   2.363
-2.631  12.335   2.195
